# .PCD v0.7 - Point Cloud Data file format
VERSION 0.7
FIELDS x y z
SIZE 4 4 4
TYPE F F F
COUNT 1 1 1
WIDTH 1527
HEIGHT 1
VIEWPOINT 0 0 0 1 0 0 0
POINTS 1527
DATA ascii
-17.016968 33.307587 0.18907435
-12.314207 33.379696 0.11367361
8.5846424 33.373795 0.17440997
-17.22224 33.475433 0.15352264
-14.772507 33.477459 0.15149389
7.3163528 33.496353 0.12253331
7.9413352 33.47496 0.1580313
7.0218 33.501312 0.12481187
-17.214479 33.749928 0.16001749
-14.769216 33.742767 0.152015
-17.027973 33.835224 0.10517061
7.6839671 33.877453 0.10795302
7.9542012 33.859818 0.16652653
-14.63565 33.974552 0.127469
7.6234636 33.980591 0.1865768
8.1289558 33.913017 0.18364692
-17.221691 34.042603 0.14805721
-14.765495 34.031303 0.14476573
-17.056948 34.139526 0.12490281
7.2050042 34.20903 0.19943842
-17.305832 34.325684 0.14392512
-14.753996 34.349384 0.16300899
-17.303692 34.631027 0.15719429
-14.742994 34.650425 0.15098655
5.9739938 34.628902 0.10604523
6.8341784 34.64793 0.13315672
6.9941692 34.609425 0.1337492
8.4669046 34.713577 0.17201515
-17.236647 34.96814 0.12205054
-14.733904 34.973995 0.14860809
-17.173027 35.254723 0.13013728
-17.09576 35.297367 0.11268765
-14.731401 35.260147 0.13289738
5.9280877 35.237682 0.1197651
6.4417315 35.249367 0.10193554
-17.167206 35.523193 0.15073031
-14.72015 35.524422 0.13875347
-14.694666 35.544373 0.11155118
5.9062099 35.526958 0.10659882
-14.706745 35.805038 0.13075094
-14.693186 35.866577 0.17242548
-12.273943 35.844223 0.1951109
5.8868637 35.837425 0.10214639
-17.172186 35.900532 0.14460865
-17.004951 35.939774 0.10087728
-17.241278 36.086338 0.15173805
6.4219284 36.070038 0.18520015
-14.705808 36.159931 0.16250668
-14.692142 36.146168 0.12379952
-17.259369 36.470688 0.14020315
-14.705717 36.470032 0.18656462
-14.686666 36.474834 0.12949264
6.4707012 36.481697 0.1616533
6.6843557 36.434986 0.11202057
-17.237564 36.695858 0.17688996
-14.678519 36.754444 0.15748155
5.6261678 36.790592 0.12805665
6.4840221 36.77787 0.16959962
6.6724811 36.794193 0.13639557
-17.127073 37.027443 0.15147364
-14.669436 37.025391 0.14467049
6.475409 37.032574 0.16369392
6.6682396 37.031113 0.13596302
-17.120064 37.34742 0.15126272
-14.537545 37.361877 0.16042064
-14.299579 37.389027 0.13748993
6.4789405 37.367779 0.15527916
6.6678276 37.317139 0.11973119
5.2882156 37.440155 0.16812178
6.634511 37.599331 0.12477005
-17.112839 37.647095 0.13254119
-14.216388 37.619576 0.19321604
6.1772184 37.626148 0.10124325
6.4851246 37.627216 0.1441223
-17.023861 37.926334 0.14630194
-14.225337 37.960495 0.13756472
5.2590175 37.990944 0.11734629
6.5023875 37.970966 0.12656662
5.5521808 38.03511 0.13956778
-14.220774 38.126923 0.14636199
5.5510826 38.148499 0.14592031
-17.030449 38.231575 0.17203733
6.6256466 38.369171 0.12077273
-16.753096 38.402359 0.19530754
-17.029013 38.531578 0.14247976
-16.04656 38.522236 0.18695681
5.6237626 38.531742 0.1031621
6.579361 38.550255 0.1343732
-17.117184 38.825169 0.11230389
-16.046345 38.809402 0.19406256
7.9414701 38.887939 0.15187891
-14.741759 38.9552 0.12427154
-17.006104 39.172882 0.17028028
-15.329208 39.122555 0.15426943
-15.111649 39.18475 0.14533313
-14.077923 39.183971 0.12526605
-14.889993 39.252914 0.14678445
-14.509189 39.27462 0.16057044
-14.281795 39.248581 0.15098038
-17.121227 39.345604 0.1469453
-14.760859 39.321842 0.15863529
-17.026413 39.462456 0.15700383
-16.039486 39.458099 0.1822791
-14.53044 39.449814 0.15812105
-14.312369 39.432411 0.17557614
-17.015099 39.795364 0.15277466
-16.745407 39.759674 0.13014214
-16.00942 39.749878 0.18578219
-14.716115 39.705482 0.14421782
-14.531041 39.764427 0.16392317
-17.139072 39.853779 0.1385579
5.5186577 39.802608 0.10397642
-15.99203 39.987255 0.17189212
-17.164536 40.02586 0.14546858
-17.084549 40.041092 0.18390518
-14.723333 40.056477 0.1277674
-14.530308 40.013988 0.11922987
7.4338837 40.033459 0.14118266
6.0954404 40.168022 0.10414026
-17.155725 40.344749 0.12832429
-17.060499 40.33971 0.19256495
-15.95827 40.373657 0.19105098
-14.589187 40.368153 0.1201958
6.0673432 40.357754 0.11461111
-17.157761 40.549347 0.19912951
-14.524618 40.695824 0.19353306
6.4862905 40.630573 0.10553002
-17.011103 40.753777 0.12996756
-15.947129 40.703354 0.16433747
-14.266286 40.80772 0.19693331
-17.006365 40.975155 0.11611917
-15.92597 40.984299 0.14961913
-14.521809 40.98222 0.14410365
6.4640012 40.971962 0.10225677
7.1458788 40.946285 0.12260937
-15.896771 41.017258 0.11643342
-17.000633 41.26033 0.13741414
-15.911007 41.280727 0.13760634
-15.891337 41.234653 0.1346017
-14.563348 41.227936 0.13812287
7.1624475 41.237164 0.16927291
-16.997026 41.517555 0.1203374
-15.908102 41.535194 0.13203353
-15.886538 41.52557 0.14888479
-14.537029 41.520115 0.17259885
-15.360381 41.761127 0.11825175
-16.991409 41.837067 0.10880211
-15.930351 41.834995 0.11252232
-15.896964 41.801895 0.10591342
-14.508821 41.897499 0.18665528
6.3337579 41.802071 0.18410268
7.7689133 41.873375 0.13666953
-16.997372 42.138817 0.14471582
-15.888034 42.175789 0.10901742
-14.504133 42.14341 0.15052703
5.653791 42.13752 0.10500747
5.852951 42.14183 0.11089981
7.7598252 42.135929 0.14967187
-15.928891 42.378864 0.10705163
5.2736244 42.319359 0.10013403
-16.998024 42.468491 0.12880313
-16.709057 42.456997 0.13029441
-14.507724 42.477222 0.17048332
5.6388931 42.493141 0.11811522
5.8821392 42.48946 0.15637285
6.1322656 42.483437 0.15844113
7.7418489 42.463074 0.17401963
6.8177767 42.615147 0.17883097
-17.001396 42.747299 0.16888957
-14.505013 42.762383 0.15179479
7.7073722 42.789368 0.17645961
-16.997223 43.021301 0.17557804
-15.875179 43.024155 0.10224033
-14.504391 43.035446 0.17092203
7.0701656 43.073975 0.1894509
7.6718683 43.04174 0.19014172
-15.191229 43.131393 0.17248407
-16.705437 43.210838 0.15912072
-15.126791 43.35733 0.19741805
-14.500486 43.3479 0.13875754
-16.99411 43.417465 0.13736029
4.701221 43.414478 0.1112375
-16.988678 43.655518 0.12624523
-14.489771 43.627998 0.13055521
-14.28054 43.670155 0.14303637
4.7028265 43.667458 0.18413801
7.0166368 43.633739 0.17834091
-14.055923 43.704266 0.15105611
5.0702076 43.785946 0.16327617
-16.96138 43.953716 0.14079519
-14.347319 43.954048 0.12387709
-14.031819 43.970341 0.16009244
4.7344508 43.909126 0.13991882
-16.744978 44.031807 0.13714978
-14.382683 44.142685 0.17634201
5.4915328 44.172707 0.10377975
-16.982643 44.235413 0.14109761
-14.019197 44.245682 0.13900366
5.9382415 44.348686 0.1024463
6.8866286 44.384632 0.11221064
7.5334244 44.379879 0.15254518
-16.946367 44.487518 0.12214657
-14.210342 44.571888 0.15112354
-14.004203 44.525677 0.11653455
5.5127754 44.507381 0.10157613
5.9284115 44.540306 0.16763338
6.7670479 44.556122 0.15960412
7.2793088 44.542797 0.19418122
6.4743481 44.661976 0.19789402
-14.027094 44.740303 0.14743905
5.932714 44.840839 0.16826038
6.7602024 44.894009 0.18054684
6.9822583 44.877487 0.16398725
7.3916512 44.84964 0.127773
-14.199891 44.923302 0.19169375
6.9206643 45.089775 0.13564239
7.3944755 45.07877 0.10813262
-16.955984 45.176819 0.14017421
5.9240346 45.161541 0.1547728
-16.89106 45.476753 0.15708636
-14.479263 45.472595 0.1374041
5.908639 45.472382 0.15527615
7.4472361 45.504177 0.19811615
-16.949118 45.698776 0.12333349
6.9956923 45.693428 0.18658346
-16.738235 45.764332 0.16724606
-14.463356 45.709686 0.13800174
-14.388465 45.788509 0.10843626
5.8850708 45.735958 0.14213336
6.1202278 45.833725 0.15003911
-16.878138 46.022667 0.14402932
-14.421267 46.024811 0.14695957
-14.373354 46.042465 0.15801486
5.8339295 46.023346 0.13595833
6.9548359 46.025711 0.18880865
-16.041576 46.185341 0.18000406
-16.773399 46.293762 0.19943576
-16.963587 46.339531 0.10583607
-14.461929 46.333511 0.12062196
5.7958999 46.360527 0.12812757
-14.39249 46.414272 0.17159517
6.9522557 46.411114 0.185506
-16.974077 46.655598 0.13682657
-14.405909 46.635658 0.1385804
-14.388662 46.657307 0.15331845
5.7750082 46.635082 0.10675824
6.9113054 46.670387 0.18242179
6.1604514 46.705097 0.11125613
7.3089943 46.705536 0.13851936
-16.959734 46.958488 0.12888575
-14.406346 46.989662 0.14946707
-14.388416 46.975777 0.1426405
5.6819968 46.979126 0.18161967
6.9127164 46.96608 0.17386743
-14.407925 47.199219 0.12220899
-14.383833 47.258469 0.13942216
5.6586852 47.271286 0.16924264
5.7436962 47.265205 0.10674541
6.6860938 47.22744 0.19579372
-16.839905 47.322979 0.13748272
5.7473803 47.483707 0.11273385
7.263577 47.449654 0.11235388
-16.832788 47.525192 0.13849124
-16.769186 47.54435 0.14906834
-14.410107 47.505337 0.17718939
-14.373058 47.528137 0.14781082
5.6539106 47.524342 0.13454026
6.5643959 47.52647 0.19192207
6.7088375 47.537323 0.16247956
6.6799154 47.740456 0.11618125
-20.522648 47.846008 0.16235827
-20.238127 47.843678 0.12170156
-19.956678 47.833721 0.18377945
-19.633572 47.8284 0.12954861
-19.027447 47.822731 0.16467533
-18.739775 47.818253 0.15805133
-18.482655 47.831028 0.1248558
-16.82402 47.843369 0.13747193
-14.424486 47.889091 0.12399533
-14.286941 47.893642 0.14941314
-13.423123 47.897945 0.1232265
5.8294482 47.85841 0.1618682
-16.789028 47.902431 0.17821707
-13.976108 47.927353 0.15815453
-13.652764 47.922802 0.16771479
4.154253 48.061317 0.19860487
4.3611083 48.075897 0.14180715
4.5953078 48.087929 0.1107934
-16.81522 48.123398 0.14780805
-16.768991 48.255596 0.15100051
5.2475357 48.361145 0.1433242
-16.782362 48.467422 0.15420231
5.541954 48.497761 0.12328213
5.9668612 48.485943 0.15565592
6.0634012 48.474915 0.13478675
7.1383448 48.454498 0.13640541
-16.814915 48.687592 0.15050565
5.5175543 48.69165 0.13701561
-16.777506 48.745907 0.15312609
5.9821429 48.758564 0.12902148
6.0387602 48.712948 0.18300423
-16.843065 49.037849 0.11658631
-16.756487 49.010307 0.15441057
6.4669127 49.079124 0.18119662
-19.465422 49.261864 0.10248894
-16.803202 49.232811 0.10338552
6.5666819 49.290657 0.1550207
-16.762432 49.344364 0.15901695
5.0142088 49.357979 0.17297275
-14.3234 49.479763 0.13262601
5.2685094 49.412621 0.1882614
5.5340405 49.411285 0.13997893
5.8099422 49.41917 0.13417241
-14.315225 49.650181 0.13785985
-16.823687 49.767773 0.12294342
-16.745184 49.714745 0.15273498
-16.806541 49.941162 0.13467541
-16.766178 49.976234 0.14371946
-14.34914 49.95673 0.1667383
-14.409789 50.173222 0.14673012
-16.821278 50.253014 0.16079426
-16.759241 50.232887 0.15045176
-14.379558 50.259918 0.15156467
5.5529346 50.225945 0.11141445
-16.750599 50.527992 0.14276397
-14.404583 50.516953 0.16287625
-14.373837 50.526756 0.14203574
5.5049763 50.747101 0.14749517
-16.813675 50.823193 0.12483369
-16.765522 50.800068 0.14720711
-14.401529 50.811028 0.1437628
-14.365708 50.84193 0.14515385
4.9435139 50.956837 0.16059609
-16.810003 51.13208 0.10536379
-16.781788 51.161648 0.13823208
-14.361818 51.163067 0.14085266
6.4457126 51.165672 0.11124551
5.6719012 51.266834 0.15736531
5.843514 51.217072 0.13427643
6.1057615 51.205486 0.16192947
-16.774117 51.476501 0.14717022
-14.351826 51.469772 0.14986253
5.536005 51.475834 0.11375562
6.1701641 51.45826 0.15688619
6.4215775 51.471416 0.12303344
-14.406845 51.652847 0.19960323
-16.800854 51.771076 0.13456006
-16.762608 51.766052 0.14624041
-14.316724 51.728848 0.14843476
5.2569499 51.767937 0.13034879
6.2144737 51.764366 0.16854446
6.3580875 51.71376 0.12025695
-16.767845 52.021523 0.13091332
-14.332175 52.056187 0.10415152
5.2356234 52.037132 0.1830104
6.19979 52.019047 0.12083755
-16.736189 52.394447 0.14768828
-14.326477 52.354519 0.14057995
-16.857504 52.417736 0.15656607
-16.740831 52.588936 0.18063933
-14.316933 52.646843 0.14414683
-16.71843 52.9874 0.11535945
-14.241802 52.982857 0.15333904
-16.120811 53.291637 0.11695322
-14.220731 53.265671 0.15385096
-16.665033 53.357143 0.15335639
-16.663074 53.521828 0.15348209
-14.196977 53.519474 0.16265294
6.060873 53.548447 0.15355095
-17.180237 53.696484 0.1525542
-16.890879 53.688801 0.15168448
-17.215931 53.728123 0.15231921
-16.968525 53.731766 0.13968942
-16.716005 53.763115 0.15407448
-14.182408 53.858204 0.14534831
5.8627892 53.814632 0.13859169
-14.170936 54.156303 0.1528569
-16.710482 54.242718 0.15939778
-16.719812 54.491123 0.1654336
-14.164675 54.470016 0.15790905
4.5987945 54.466927 0.1341103
5.213479 54.467022 0.13546604
-16.043518 54.502228 0.19915819
5.1747484 54.693508 0.13806432
6.5284624 54.667316 0.11201523
-16.697924 54.745682 0.17120911
-14.155876 54.740299 0.17840619
-16.622194 55.031128 0.16700813
-15.364965 55.05468 0.10362719
-14.156788 55.03688 0.16993582
-14.096037 55.16193 0.18743554
-15.304646 55.280731 0.16019472
5.0366664 55.275021 0.1494412
-16.616335 55.344345 0.14511819
-14.161911 55.331528 0.13951689
-14.08927 55.329475 0.17460467
6.0881186 55.371811 0.15947351
-16.607313 55.648643 0.16291916
-14.15491 55.700111 0.15187645
-14.086238 55.763195 0.18552393
5.6032929 55.72736 0.11133298
-16.165146 55.885681 0.17267022
-16.595623 55.982533 0.15013425
-14.119333 55.96804 0.14271495
-13.985979 55.997059 0.15885627
5.6404443 55.982262 0.10335428
-13.741301 56.013474 0.1393092
-16.171509 56.105568 0.14089043
3.5559483 56.183395 0.15538314
-16.587786 56.25436 0.15705055
-16.424845 56.274597 0.19150692
-13.663769 56.266693 0.15852188
3.7619777 56.276203 0.12698643
5.6127019 56.236679 0.10294213
-16.580751 56.52475 0.14783034
-13.643784 56.526402 0.15432879
3.9901345 56.515789 0.12236378
4.9782462 56.53521 0.1325177
5.5725307 56.556366 0.10578823
4.5430689 56.610409 0.14667656
-16.572294 56.841152 0.15173949
-13.647816 56.840118 0.16740066
4.4034967 56.976627 0.10364622
-16.351194 57.085239 0.15018658
-13.659364 57.064205 0.11440802
4.4429092 57.01878 0.19595367
4.6089244 57.022278 0.12286325
-16.560846 57.149185 0.14651468
5.7965527 57.108456 0.12086499
6.0042396 57.101532 0.10925377
-13.911103 57.24921 0.15445934
-16.552872 57.475739 0.15848681
-16.390884 57.471748 0.14416283
-13.963736 57.477154 0.158066
5.802341 57.467049 0.13461205
-14.102328 57.565434 0.12221542
5.3419676 57.500183 0.11341376
-16.44586 57.680313 0.15399884
-16.543997 57.75106 0.16421142
-14.074518 57.775803 0.17507422
5.833107 57.741768 0.13866195
-16.099716 57.831123 0.10548537
-14.120815 57.859722 0.1475385
5.36303 57.824238 0.11694872
-16.531673 58.022507 0.13813686
-16.474993 58.045166 0.136204
-16.095909 58.015678 0.16593736
-14.11589 58.018478 0.18025285
-14.08042 58.02356 0.12792675
5.364706 58.029358 0.11015299
5.8325925 58.017994 0.18789718
-16.528364 58.341461 0.14668117
-16.395466 58.341187 0.17779806
-16.065933 58.365135 0.10524397
-14.077353 58.349545 0.1259978
3.8049765 58.364662 0.18031427
5.8052063 58.352699 0.15974638
-16.525618 58.644386 0.16390298
-16.480734 58.663074 0.15960433
-14.111935 58.606297 0.14947444
-14.058709 58.670387 0.15168315
3.8040376 58.607166 0.18574549
5.7903905 58.636108 0.18390755
-16.520802 58.971947 0.14456522
-16.48518 58.980122 0.16525593
-14.109655 58.965607 0.1397728
-14.042701 58.971031 0.14779738
3.782649 58.910271 0.15814331
5.307332 58.969185 0.10152458
5.7979684 58.979404 0.13287933
-16.198303 59.144958 0.18958515
-16.530773 59.2276 0.12444841
-16.481991 59.258915 0.15906562
3.7695386 59.264843 0.12347644
5.7668548 59.269428 0.15806052
3.9928598 59.303169 0.12211563
-16.512558 59.52232 0.12395419
-16.478218 59.523132 0.14796562
-17.216337 59.887512 0.15281288
-16.975372 59.870667 0.14836864
-16.64032 59.87117 0.1538702
-16.480019 59.808552 0.15154959
-14.006542 59.863281 0.17407839
5.5388479 59.840733 0.10869458
5.7027268 59.929012 0.16869281
-16.992487 60.056496 0.15736151
-17.281136 60.137222 0.14951696
-15.880797 60.166004 0.16261226
-14.003105 60.161514 0.14916927
5.0102334 60.175209 0.18169683
5.556376 60.185074 0.11078336
5.701942 60.175049 0.17517374
-15.895253 60.334202 0.1138149
-17.554787 60.476086 0.15769143
-17.275898 60.473129 0.15268385
-15.974504 60.490021 0.15303956
-13.999994 60.47448 0.15391263
4.9800725 60.475704 0.17336191
-17.538141 60.7425 0.10782848
-17.275909 60.746273 0.13662025
-15.994705 60.784576 0.16907132
-13.997137 60.73312 0.15498354
4.9614859 60.756767 0.1395348
5.4964643 60.708199 0.10366434
-17.285686 60.997581 0.15746853
-17.058769 60.95557 0.18738902
-16.004192 61.035446 0.16399996
-14.000648 61.015594 0.14123337
4.9610958 61.034237 0.14967254
5.500124 61.028576 0.19281863
-17.472954 61.341133 0.14033709
-16.011974 61.304871 0.1832864
-13.999576 61.335186 0.11374535
4.9569831 61.330254 0.15647897
5.5023355 61.317833 0.16147135
4.1755548 61.433395 0.10755561
5.4890594 61.595348 0.16426384
-17.484106 61.611931 0.12374198
-16.060764 61.652809 0.15377383
-13.994976 61.644295 0.15275376
4.9667296 61.63253 0.11723025
-16.095432 61.974258 0.14468759
-13.930326 61.913635 0.15282615
-13.617853 61.973557 0.14883074
3.0394886 61.988579 0.15337823
4.4014931 61.977116 0.15935515
5.4281054 61.961761 0.17182043
3.5125074 62.063538 0.13801208
3.1787553 62.150539 0.11911505
3.4525332 62.172279 0.18586728
-16.124599 62.262432 0.15077722
-13.495564 62.255802 0.13230228
4.6375976 62.258385 0.16850995
5.4412141 62.280437 0.14405619
-13.48897 62.488331 0.13340259
4.4501147 62.479744 0.18241659
-16.154604 62.528564 0.14796031
4.684206 62.504234 0.16452911
5.2967019 62.500725 0.13735709
5.4336472 62.614601 0.12901714
5.4332328 62.793758 0.12935558
-16.183155 62.825012 0.16632397
3.388042 62.881771 0.11432224
4.679317 62.816246 0.16550511
5.3124323 62.840134 0.17441218
4.8261442 62.977665 0.15987134
-13.622343 63.060623 0.15810433
-13.344802 63.089603 0.14917412
4.6874037 63.00272 0.13418776
5.3525004 63.078506 0.16208129
-16.241606 63.169548 0.13713868
-13.026541 63.122547 0.15794289
-12.747607 63.150494 0.15388148
-12.472113 63.178917 0.15220331
3.46908 63.196957 0.15230919
3.6393814 63.127518 0.15240842
-12.14837 63.211906 0.16100895
-11.84103 63.245724 0.14017731
-11.534089 63.277447 0.143278
-11.33921 63.294098 0.12357906
-11.807713 63.352329 0.1416418
-11.428858 63.302696 0.19704898
-11.233045 63.312248 0.15559728
-10.971918 63.337933 0.15502509
-10.655012 63.370232 0.14061052
-16.294123 63.474583 0.14912039
-10.025568 63.437634 0.17458862
-9.7619028 63.466072 0.13492015
-9.4867792 63.499912 0.13663557
3.4216931 63.416042 0.13654125
-8.858305 63.561882 0.16460788
-8.5360937 63.591263 0.13427863
-8.3852329 63.597805 0.10674132
-8.4893284 63.604935 0.16595659
-8.2684574 63.623352 0.14420943
-7.9723892 63.66787 0.16510075
-7.6499453 63.690163 0.14077829
-18.568657 63.764397 0.14213334
-16.322849 63.760509 0.1475078
-7.3549399 63.72155 0.1506059
-7.0232887 63.757317 0.14114305
-6.7543135 63.786983 0.13068968
3.2803781 63.7244 0.15071982
3.3297305 63.724724 0.10810439
-16.555462 63.863697 0.12085531
-13.542026 63.838268 0.17921667
-11.766951 63.883835 0.1695604
-6.4693108 63.815308 0.12736444
-6.1468234 63.850197 0.13087963
-5.8611603 63.88118 0.1251194
5.2309275 63.875389 0.16074005
-17.614811 63.992279 0.17637788
-16.524628 63.983959 0.1462197
-8.0776787 63.900253 0.18288518
-5.7338262 63.965897 0.13704705
-5.5635662 63.951305 0.12277395
-4.954669 63.992989 0.19120114
-18.585548 64.013535 0.15922773
-17.222857 64.070656 0.1380796
-16.901039 64.021942 0.12687305
-16.383553 64.018585 0.14798862
-4.7106848 64.006714 0.13832268
-4.3568134 64.042351 0.14189556
-4.0237379 64.079193 0.15637486
-3.7634583 64.103256 0.13333993
-3.4777308 64.135452 0.12200934
-3.1544557 64.17392 0.13868678
-2.9180925 64.189468 0.1138071
-2.6675472 64.196548 0.19902572
-2.7840743 64.213615 0.15323535
-2.5274172 64.237534 0.13101447
-2.2495105 64.267555 0.15915102
-1.9810532 64.29406 0.14430061
-18.62454 64.350517 0.1357867
-16.400436 64.337708 0.12959677
-3.1427052 64.333817 0.17498673
-1.6570858 64.328323 0.14933345
-1.331063 64.367577 0.15311186
-1.0403019 64.396835 0.12211239
3.3139112 64.388 0.12828909
4.1632428 64.398605 0.10641594
5.2532015 64.392845 0.110952
-0.73229927 64.424248 0.13547887
-0.4697929 64.447357 0.10885167
-0.25488418 64.476662 0.12059617
-18.645987 64.578156 0.14886704
-18.568253 64.523369 0.15018028
-0.041210011 64.525208 0.19886513
0.176599 64.560875 0.16362903
0.47970188 64.559364 0.14760484
5.220963 64.583374 0.14946456
-16.407351 64.675735 0.14003845
-3.1617324 64.638741 0.16942663
-4.33531 64.72699 0.12016494
-4.0193739 64.74321 0.15573463
-3.7555861 64.769012 0.15520954
-3.4941106 64.782822 0.12706228
3.502708 64.777039 0.11582214
-16.545149 64.838203 0.104123
-10.431056 64.857635 0.15272625
-3.6654346 64.810509 0.15471336
-3.4786043 64.815826 0.14705417
-16.411537 64.975655 0.14103878
-4.340188 64.979645 0.12078759
-4.1044579 64.968819 0.13307732
-3.1903691 64.969849 0.12791617
3.4208152 64.950218 0.18948334
-4.6525116 65.006836 0.1884473
-16.432125 65.24321 0.14178158
-4.611361 65.275574 0.17759077
-4.3570118 65.242065 0.1121413
-4.1330166 65.228729 0.12608607
-3.1871979 65.22879 0.13909194
-2.8426862 65.279099 0.11816191
5.1428518 65.263863 0.10798701
-16.512697 65.338097 0.18141079
-2.2237854 65.375526 0.10254359
-2.0236011 65.391922 0.11264399
-13.965118 65.496307 0.11505952
3.4845667 65.409561 0.10462098
-16.506144 65.52449 0.13053492
-16.440773 65.518661 0.13619812
-14.578624 65.551392 0.12766421
-14.109259 65.502502 0.12885675
-13.693198 65.509193 0.18695071
-13.391973 65.527428 0.15059155
-4.574131 65.539864 0.11397968
-4.3797169 65.529518 0.1048677
-4.1556292 65.531799 0.12387781
-3.1543198 65.513069 0.18258953
-2.8379476 65.503647 0.18753722
-2.2004075 65.523857 0.11446933
-1.5739765 65.509583 0.14914797
-1.3297641 65.525772 0.1211739
5.1556721 65.532349 0.10616562
-15.356643 65.687439 0.12775618
-15.222807 65.657486 0.11468067
-13.026586 65.601013 0.14743406
-12.748823 65.629326 0.14464931
-12.476746 65.657944 0.14578964
-12.18946 65.68869 0.14459963
-0.13682145 65.615509 0.1435962
5.0887184 65.609962 0.14056019
-16.024994 65.78299 0.18557188
-12.057408 65.705307 0.16446105
-11.845982 65.72226 0.15559407
-11.520916 65.7556 0.1479035
-11.270798 65.781158 0.13982904
-1.2893484 65.768265 0.11185299
-0.49820679 65.790207 0.10655867
4.3472819 65.796684 0.19460642
5.0720797 65.789162 0.14035949
5.1261973 65.770615 0.11584345
-16.516121 65.871819 0.1062631
-16.425777 65.816002 0.16418099
-10.98231 65.813438 0.15808961
-10.654595 65.844475 0.12861966
-10.36181 65.873825 0.14073418
-4.6238251 65.800812 0.13369007
-4.3396192 65.803917 0.10973807
-4.0518122 65.848862 0.15081728
-0.13695644 65.846474 0.10656714
-10.023625 65.910728 0.14710772
-9.7615337 65.936089 0.13895462
-9.4718218 65.965424 0.15843324
-9.2243338 65.989677 0.1513494
-3.7591949 65.900337 0.1417558
-3.4681683 65.900909 0.11238728
-9.0902128 66.007484 0.15013556
-8.8538914 66.030151 0.17240788
-8.5226746 66.065765 0.1424236
-8.2411833 66.09343 0.14872703
-16.524689 66.125458 0.15210858
-7.9770837 66.120247 0.14905253
-7.6501179 66.155312 0.1625455
-7.3567796 66.184166 0.13582613
-3.3374074 66.162437 0.13486227
-3.2347958 66.13295 0.12926732
5.172008 66.100677 0.13035555
-7.0215669 66.219643 0.14381944
-6.7383695 66.249886 0.13819076
-6.4768634 66.275879 0.13421817
-6.2429571 66.293243 0.14147456
-6.4838934 66.326874 0.14518073
-6.1173201 66.315872 0.12727429
-5.8539662 66.339302 0.15686642
-5.523654 66.3694 0.14874844
-5.2414942 66.398636 0.15220405
-4.9760008 66.42276 0.12371867
-4.6651144 66.483894 0.18132155
-4.3298731 66.497253 0.15647361
-4.0285935 66.497131 0.13462584
-0.071738243 66.413795 0.12945324
0.45157281 66.499168 0.1325376
3.7811124 66.48999 0.17059749
4.8628759 66.488632 0.11374749
-3.7453599 66.502151 0.14519393
-3.4683452 66.500946 0.15821052
-3.2640138 66.597359 0.10731948
4.0347772 66.513992 0.1988357
4.4415083 66.52652 0.17839333
-3.1037033 66.615845 0.14377555
-2.8631008 66.641792 0.133634
-2.5256269 66.672104 0.11963448
4.5459962 66.658684 0.13019587
-16.592688 66.715782 0.19804236
-2.237036 66.702118 0.16031998
-1.978518 66.731049 0.1356212
-1.634542 66.759956 0.14391533
-1.364455 66.780785 0.14810525
-1.0246656 66.789963 0.12671645
1.379666 66.797096 0.18894766
4.3953652 66.715019 0.13018531
-0.72268772 66.833687 0.14046633
-0.47028065 66.864288 0.16207874
-0.21034227 66.879539 0.18608294
1.6866443 66.850624 0.19527052
5.3962288 66.880081 0.12585944
-18.925123 66.997894 0.10332389
-0.43836334 66.909683 0.15809226
0.16434309 66.989136 0.14106067
1.6501547 66.996964 0.16048923
4.3586802 66.917809 0.19799291
0.74760878 67.00412 0.10243848
11.208199 -30.063791 0.24678288
11.27535 -29.687124 0.21623871
10.917727 -20.229162 0.27084371
10.659655 -19.059307 0.23077665
10.114142 -14.634254 0.28391165
10.163831 -14.184685 0.23767994
10.020821 -13.818012 0.2438127
10.339447 -13.832163 0.22047031
-11.84325 -13.667949 0.28655404
10.368342 -13.668612 0.25096646
10.559102 -13.667497 0.21108609
10.014894 -13.308254 0.2263303
10.004695 -13.02839 0.24323785
-11.927894 -12.932128 0.2607049
10.057547 -12.734345 0.21877941
-12.020734 -11.891617 0.24598959
-12.450038 -11.736672 0.29213145
-12.434761 -11.312006 0.28329167
9.856185 -11.362811 0.28593463
-12.096361 -11.173869 0.22678445
-12.420125 -10.93635 0.27381587
-12.407028 -10.550622 0.26638192
-12.168517 -10.4701 0.20878816
-11.295408 -10.403809 0.27424589
-12.393738 -10.216943 0.25727344
-11.2735 -9.9872789 0.26773065
-12.380768 -9.89326 0.24825245
-11.261334 -9.5004406 0.26383212
-12.363781 -9.4556675 0.2362054
-11.588181 -9.4789381 0.29442617
-12.047213 -9.3718777 0.2902731
-12.022902 -9.1148729 0.28948876
-11.633397 -9.1490431 0.25853935
-13.047186 -9.0066814 0.29514042
-12.324907 -9.0678577 0.20374811
-11.806218 -9.0878592 0.28803355
-12.990598 -8.9380026 0.29224455
-11.255161 -8.9804211 0.26091778
-12.72254 -8.8599367 0.27841535
-12.481674 -8.8655281 0.26405257
-12.164106 -8.8544941 0.24210623
-11.834569 -8.8287201 0.2728619
-11.600127 -8.8524685 0.24873643
-12.757053 -8.5075693 0.24282157
-12.361439 -8.5242472 0.23704977
-11.821604 -8.5136757 0.28456467
-11.630657 -8.5334024 0.26935077
-10.582096 -8.517292 0.22998261
-12.085551 -8.4237261 0.29368863
-11.252557 -8.4582882 0.26061201
-12.699961 -8.2537413 0.23690605
-12.469378 -8.2125244 0.23306139
-11.822453 -8.2456627 0.2818844
-11.558512 -8.2050629 0.25865385
-13.009748 -8.1617231 0.27913851
-12.151618 -8.1925573 0.29074565
-13.704549 -8.0853252 0.26767549
-13.07137 -7.9470539 0.28274211
-12.71441 -7.967288 0.29264423
-12.433011 -7.9235954 0.27931532
-12.166631 -7.9737387 0.26990724
-11.858993 -7.9698677 0.27380621
-11.549641 -7.9776931 0.25425884
-11.249054 -7.9692016 0.259139
-13.221566 -7.8759823 0.29030988
-13.819538 -7.6448865 0.29967308
-13.282773 -7.6146369 0.28787911
-12.702476 -7.6275535 0.27862614
-12.471115 -7.6356115 0.28359541
-12.148695 -7.6490693 0.27511191
-11.872736 -7.6522021 0.25945932
-11.525156 -7.646204 0.25488013
-11.336313 -7.651166 0.24998486
-13.650601 -7.5709343 0.27331719
-13.031764 -7.5707684 0.25768304
-11.385997 -7.4420877 0.22336634
-13.840976 -7.3662939 0.25119469
-13.011858 -7.3251877 0.28381261
-12.728586 -7.3357038 0.28778955
-12.482956 -7.360074 0.28035086
-12.158201 -7.3498688 0.26383445
-11.853018 -7.3443294 0.24996009
-11.527367 -7.3498383 0.24049088
-11.004601 -7.3061247 0.21407947
-13.659636 -7.2897363 0.26849553
-13.312286 -7.2994404 0.26884729
-13.61854 -7.0281229 0.26786003
-13.357628 -7.0151491 0.27561852
-13.015862 -7.0234976 0.28672361
-12.757732 -7.0237856 0.27948037
-12.477999 -7.0261259 0.2652595
-12.150828 -7.0288868 0.24725583
-11.851908 -7.0208735 0.24131215
-11.536948 -7.0337844 0.23356061
-11.026955 -6.9918838 0.23967874
-13.623205 -6.7275987 0.27206507
-13.340986 -6.7275071 0.28699577
-13.017088 -6.758399 0.27830836
-12.750635 -6.7487307 0.26709479
-12.481888 -6.754344 0.25332406
-12.164707 -6.7515936 0.23528585
-11.846019 -6.7553458 0.22785695
-11.084186 -6.7981811 0.23693874
-11.535875 -6.6970854 0.24210191
-11.185013 -6.6145678 0.22506037
-13.614216 -6.4729099 0.28485215
-13.340444 -6.4745169 0.28372622
-13.020648 -6.4694881 0.27083167
-12.751448 -6.4725499 0.25325757
-12.478969 -6.4767265 0.24022177
-12.1448 -6.4713235 0.22451982
-11.821102 -6.474194 0.21883062
-11.527849 -6.4753175 0.22996116
-13.814574 -6.1214004 0.2960299
-13.615793 -6.1484752 0.2820262
-13.345572 -6.1417422 0.27137834
-13.025954 -6.1554499 0.25797588
-12.752589 -6.1416798 0.24196188
-12.474072 -6.1458249 0.22566545
-12.151625 -6.1441607 0.2106372
-11.830789 -6.1431479 0.20489298
-11.5231 -6.1371989 0.22042012
-13.608894 -5.8494201 0.27263969
-13.341807 -5.8454018 0.25660044
-13.026094 -5.8480964 0.24072811
-12.754267 -5.8508878 0.22751769
-12.470462 -5.8455057 0.21483541
-11.314815 -5.836 0.22012661
-13.601816 -5.5276928 0.26002163
-13.345659 -5.5243587 0.24556157
-13.026812 -5.5255489 0.2263357
-12.749742 -5.5299664 0.21339262
-12.472389 -5.5293379 0.20011365
9.8626089 -5.3649197 0.20239399
-13.583724 -5.2502704 0.24909225
-13.339099 -5.2423873 0.23304464
-13.026194 -5.2454815 0.21386269
-12.760816 -5.2515121 0.20235434
-13.939331 -5.1727142 0.28097075
-13.900378 -4.9672627 0.25184268
-13.579872 -4.9689093 0.24510394
-13.345335 -4.9760575 0.2228218
-13.032969 -4.9740129 0.20556487
-0.33082691 -4.8485718 0.20358126
-13.672947 -4.6757402 0.242612
-13.351139 -4.6451955 0.21091752
-14.116091 -4.5232201 0.2977522
-13.953871 -4.5569334 0.25491667
-6.6837115 -4.503109 0.23355119
-14.113765 -4.4282546 0.28148672
0.74201226 -4.4050159 0.20805147
1.032135 -4.4193387 0.22950926
1.3400339 -4.4486685 0.23324904
1.6655283 -4.4952435 0.21258187
1.9958743 -4.493372 0.23454985
2.263479 -4.4899311 0.25239068
2.5016427 -4.4877129 0.27066439
2.7609661 -4.4821763 0.29012084
3.5617414 -4.4967637 0.24627262
3.6705303 -4.4857941 0.27823421
-13.965193 -4.3953161 0.24081209
-13.643312 -4.340488 0.20884785
-13.874 -4.0297532 0.21844485
-13.640783 -4.025631 0.20063566
-13.851766 -3.7542391 0.2073651
0.81305355 -3.6420159 0.2519908
-13.837101 -3.4732132 0.22655526
-11.374723 -3.4680736 0.21260263
-1.6400304 -3.2465346 0.24536876
-14.224576 -3.0278857 0.24781947
0.91472369 -3.0908413 0.28616419
2.9642379 -2.9793072 0.21169543
12.00696 -2.9067245 0.23862569
-15.086174 -2.8053699 0.24446015
-14.837415 -2.8258321 0.24282649
-14.514846 -2.8264525 0.23903543
-14.250323 -2.8627255 0.20041157
3.1651485 -2.8379037 0.22925147
-15.628955 -2.7904601 0.29479721
-15.483755 -2.7840052 0.27576971
0.91729665 -2.7829356 0.21500055
-15.401507 -2.6066368 0.2788662
-2.690484 -2.6031046 0.20223682
-16.045706 -2.5347686 0.27826938
-15.078817 -2.5176644 0.25936696
-14.868963 -2.5140183 0.20563394
-14.514791 -2.5222182 0.20313679
4.751245 -2.4469028 0.26915759
4.9889441 -2.4221728 0.20231977
9.7781925 -2.4774756 0.26452163
nan nan nan
9.7469959 -2.3518751 0.25824556
-16.21221 -2.2857428 0.29294392
-16.10408 -2.2460709 0.27177113
-15.067435 -2.2462177 0.25831622
9.4409885 -2.2929888 0.2102851
-4.7009554 -2.1941092 0.20602928
-0.32052451 -2.1421921 0.23165657
-6.4120517 -2.0501745 0.2910648
-5.1753559 -2.0137663 0.21122305
-4.9325018 -2.039238 0.24201341
0.39395416 -2.0609519 0.2578072
3.7569001 -2.0148494 0.20353195
nan nan nan
-16.257126 -1.9508077 0.27290103
-16.043909 -1.9646945 0.25431195
-15.080019 -1.9733615 0.26200551
-5.8525958 -1.9961805 0.27953094
-4.5663729 -1.9780279 0.20714481
nan nan nan
nan nan nan
-15.840544 -1.7475604 0.21915278
nan nan nan
-16.275505 -1.6648697 0.2591362
-16.038151 -1.6105822 0.26367351
-15.095283 -1.6414999 0.24694441
-3.414479 -1.6396997 0.24296486
-3.0329597 -1.6427735 0.26804793
-0.26017863 -1.6804292 0.29732493
0.98235089 -1.6338217 0.20244238
9.3945599 -1.6043087 0.29094592
-16.669399 -1.5830432 0.28380167
-4.0142083 -1.4979711 0.26708728
7.1872993 -1.4869885 0.26902011
-16.234808 -1.3031034 0.25616384
-16.038792 -1.3629634 0.24810423
-15.679512 -1.321067 0.26133734
-15.122641 -1.3487176 0.24267653
-15.451109 -1.2519298 0.25707254
-16.226578 -1.0567921 0.23945402
-16.049744 -1.0383859 0.20885077
-15.433482 -1.0601856 0.22247361
-15.1404 -1.0419358 0.22474378
9.1840887 -0.92682385 0.25027665
9.4609699 -0.91947579 0.21699286
-15.431208 -0.88161325 0.27530634
9.1484957 -0.72039926 0.24721473
9.4774837 -0.72764772 0.25396714
9.7273731 -0.719661 0.23427737
10.023089 -0.72555745 0.20622757
-8.2293301 -0.61150277 0.25020367
7.6093512 -0.51285887 0.22238944
7.9862332 -0.45881325 0.23985027
8.9061222 -0.45881757 0.26416951
9.1562634 -0.47775644 0.27450991
9.4760857 -0.47520524 0.25621286
9.7427616 -0.47575599 0.22854403
10.026483 -0.47577208 0.20071357
-15.515484 -0.26368928 0.27565229
7.7863903 -0.22667313 0.2297589
7.9681196 -0.26711839 0.27299523
8.2509584 -0.20113756 0.27031401
-13.893538 -0.11758928 0.21526243
8.9081335 -0.15481913 0.28007999
9.1641665 -0.14105769 0.27528831
9.4761181 -0.13584095 0.25156629
9.7482853 -0.15471059 0.22082286
8.0621996 0.1786 0.2902
8.2592506 0.14725001 0.27166665
8.5346031 0.13902062 0.24671556
8.9338455 0.15236422 0.28869385
9.1706848 0.15776253 0.27465272
9.4709654 0.14778292 0.24617711
9.7520542 0.14933272 0.21162267
8.2128334 0.47544447 0.26238889
8.5353012 0.40962914 0.2451717
8.9015427 0.47849074 0.28753492
9.1567554 0.47591817 0.26947188
9.4757023 0.47676343 0.23899108
9.7508917 0.47618157 0.20523694
8.0032501 0.51875001 0.28083333
8.6427431 0.71691996 0.29189813
8.8864164 0.75114775 0.28460783
9.1530609 0.74742132 0.26374149
9.4765635 0.75861228 0.23377138
11.723721 0.80586094 0.20140414
8.3283119 1.0743749 0.25312501
8.5491238 1.0330187 0.26685551
8.8757763 1.0235682 0.28098747
9.1470642 1.0194454 0.25798017
9.4768209 1.0199552 0.22494915
7.9779282 1.3689429 0.25974286
8.251524 1.334197 0.24792738
8.5561848 1.3514584 0.28783864
8.85783 1.3498664 0.27914584
9.1534033 1.3465347 0.25248122
9.4794779 1.3443863 0.21510029
7.6246328 1.4614881 0.29690522
14.065401 1.4169827 0.20291618
7.6208158 1.5980481 0.23816121
8.0339994 1.5645999 0.25040001
8.543005 1.686832 0.29209602
8.8566608 1.6435262 0.27310273
9.1475611 1.6376818 0.24350062
9.4759636 1.6506708 0.2063283
-11.096721 1.7813925 0.2162701
8.3488674 1.7715586 0.28796455
7.0950909 1.8964046 0.20330684
-11.01859 1.9796458 0.20407408
7.2337012 1.9445145 0.20711046
7.9138355 1.9303274 0.26334879
8.3340702 1.9881883 0.27497256
8.5349998 1.9778516 0.28538704
8.8509359 1.9758145 0.26489997
9.1520061 1.9705281 0.23445269
12.022917 1.9742498 0.22366667
8.0117264 2.1719332 0.27675766
8.2672853 2.1823816 0.27207696
8.5320206 2.2595961 0.28877202
8.8450813 2.2435968 0.25911847
9.1584444 2.2554035 0.22671771
11.905333 2.2484446 0.23844443
8.3768778 2.5304937 0.29458517
8.531249 2.5183754 0.28467196
8.8688011 2.5271754 0.25107542
9.159153 2.5264511 0.21963303
11.795334 2.5201666 0.24866667
11.7145 2.7365 0.25349998
8.3585587 2.898041 0.28002146
8.5243816 2.8636711 0.28099802
8.8651438 2.8413873 0.2455501
9.1578474 2.8539083 0.21936223
8.3382568 3.1853788 0.29012525
8.5182476 3.1717243 0.27744898
8.8666601 3.1351857 0.24104647
9.1556559 3.1450112 0.21180521
8.2873001 3.4734795 0.28771669
8.5331335 3.475055 0.2656768
8.8585796 3.4763658 0.22905062
9.1482382 3.4708142 0.20071965
8.0802269 3.5883956 0.29831961
8.2577209 3.7579858 0.28485936
8.5237617 3.7399433 0.25940549
8.8361654 3.742944 0.2243727
8.0759811 3.8474495 0.29583186
7.9811454 4.0168686 0.29248667
8.2717552 4.02209 0.27456683
8.5244331 4.0240955 0.2505587
8.8536091 4.0278544 0.21691093
8.007597 4.3562303 0.29231486
8.2636662 4.3608713 0.26964411
8.526495 4.3451757 0.24323535
8.850317 4.3661079 0.20942397
8.002161 4.670228 0.2912167
8.2387581 4.6509962 0.26663646
8.5298567 4.6498613 0.23722416
8.8557348 4.6411166 0.20542011
6.9701662 4.8141551 0.20682462
-12.199247 4.9416647 0.2291404
8.0001774 4.9789338 0.28764942
8.2460155 4.976284 0.26358557
8.5237513 4.9784422 0.23768783
8.8468142 4.9711671 0.20281848
7.7461915 5.0717397 0.29731232
-13.734384 5.25318 0.20241739
-10.257068 5.2175083 0.28768295
7.7444181 5.2943568 0.29730269
7.9918232 5.2449393 0.28114367
8.2313004 5.2430887 0.26106566
8.520155 5.244297 0.23200724
-8.8723059 5.3742037 0.22242638
7.746995 5.5265698 0.2932134
7.9789038 5.5241976 0.27448601
8.2464418 5.5280509 0.25050229
8.5255327 5.5263844 0.22294146
7.4764481 5.6398201 0.29929343
-11.117636 5.8419375 0.21546669
7.395649 5.8554778 0.29527983
7.7060266 5.874927 0.28865072
7.9724464 5.8488507 0.26618659
8.2599182 5.8368096 0.24064641
8.5306997 5.8527927 0.21196212
-3.2789199 6.0094423 0.20682302
7.4084539 6.1855893 0.29542172
7.6908169 6.1830859 0.28466603
7.9707236 6.1433849 0.25971496
8.2595873 6.1532826 0.23345296
8.5254917 6.1489267 0.20820472
7.4262161 6.4823046 0.28531665
7.6570935 6.4730163 0.28413004
7.9802179 6.4803367 0.25002262
8.256773 6.4754004 0.22618368
8.5244446 6.478734 0.20126928
10.582808 6.4771643 0.2333025
7.3910723 6.7767653 0.28537041
7.6483841 6.757854 0.27729166
7.9817238 6.7458191 0.24493757
8.2747431 6.7569132 0.21937519
5.0548053 6.9051752 0.21437022
-11.107109 7.0216703 0.21368769
7.3443556 7.0346994 0.23118216
7.6350222 7.0267582 0.27154052
7.9823341 7.0218921 0.23738718
8.2578754 7.0246358 0.21325901
-11.103181 7.2338581 0.26786396
-12.93824 7.3973413 0.23263928
6.7778072 7.3040953 0.26506346
7.045105 7.3699331 0.29123387
7.3485384 7.3590508 0.28104848
7.6404462 7.3610096 0.26192489
7.9825702 7.3456364 0.22631316
8.2474556 7.3418531 0.20164126
nan nan nan
1.2142642 7.431098 0.20389172
6.5255752 7.4050894 0.2386542
-13.513806 7.5256824 0.27439734
-13.444612 7.5795383 0.24716367
-10.669386 7.6501861 0.20982701
-4.3857346 7.690691 0.23127571
-4.0949364 7.6749692 0.2120024
-3.3321207 7.693716 0.25398675
6.8821135 7.6154528 0.27525955
7.0364504 7.662528 0.28646374
7.3607068 7.6574922 0.27773386
7.6274128 7.6643591 0.25877789
7.9686146 7.6470561 0.22263649
-9.0013475 7.7490268 0.29463223
-6.9647422 7.7898221 0.2941435
-6.7137527 7.7723408 0.26042566
-6.4013119 7.7521534 0.21547371
-5.0137205 7.7109337 0.22382632
-4.6841884 7.7261071 0.22265787
-3.1365738 7.7107415 0.2248179
-13.385235 7.8723941 0.27358818
nan nan nan
6.8905916 7.9820876 0.29145604
7.0409999 7.970614 0.28586712
7.3538246 7.9767303 0.28243673
7.6357641 7.9732885 0.26104575
7.9706163 7.9777923 0.2165302
-9.165801 8.0685568 0.21677768
-11.186131 8.1791306 0.2518523
-10.425212 8.1670895 0.21039861
-7.9835582 8.1194878 0.20095056
6.5623031 8.2398129 0.29858321
7.0492773 8.2495422 0.2866599
7.3670864 8.2531986 0.28036192
7.6112509 8.2319803 0.25977117
7.9764614 8.2532654 0.20784491
-13.02516 8.3512764 0.23622131
6.8359084 8.3157606 0.2940295
-15.776891 8.4086332 0.20095232
-13.672004 8.4163237 0.21788166
-12.70922 8.4243879 0.27635783
-12.476037 8.4333439 0.24874836
-12.1335 8.4263277 0.20982325
-3.9235613 8.400877 0.27012861
1.1899618 8.4623241 0.24071774
-3.2225931 8.5191393 0.29712427
6.5304737 8.5266714 0.29531103
6.8201885 8.5435219 0.29387093
7.0426488 8.5389919 0.28756696
7.3438053 8.5210657 0.2801984
7.6380644 8.5228214 0.25381279
7.9666719 8.5247564 0.21048245
-9.9853106 8.6154146 0.28280586
-9.7415113 8.6024151 0.23242818
-0.47633991 8.6774092 0.26262811
-9.6687241 8.7414389 0.28419313
-9.4727697 8.7210159 0.22271487
6.4992843 8.8205585 0.29161915
6.8488388 8.8542109 0.28583902
7.0363626 8.8698921 0.28919616
7.3508496 8.8478642 0.27464059
7.6420412 8.843194 0.24138778
7.9716082 8.8418236 0.2028235
5.892374 9.1599646 0.2894631
6.4815464 9.1634464 0.26734358
6.7946053 9.1625566 0.27113825
7.0344439 9.1354074 0.28337151
7.339921 9.1462221 0.26820144
7.6318936 9.1433725 0.23734218
6.1860104 9.2080927 0.2750586
6.5975461 9.6988268 0.28730729
6.7359715 9.7712641 0.23178101
7.088191 10.02988 0.2043249
8.5115633 10.025499 0.20900178
-2.1711147 10.182357 0.25964999
-1.5634812 10.145421 0.24838799
6.7117186 10.171091 0.27235004
6.8375826 10.256466 0.23510538
7.0113745 10.288614 0.24440107
6.5741401 10.301863 0.27782786
8.5224171 10.364861 0.25443843
8.8459282 10.405946 0.20448834
-6.1739998 10.528031 0.27060267
-5.8196464 10.517133 0.27222562
6.7823496 10.649505 0.23746751
8.5272198 10.678952 0.26562804
8.8426504 10.64728 0.21361199
-15.404255 10.790477 0.23478186
7.0308466 10.722379 0.22126949
9.4892673 10.709997 0.2217823
8.5256472 10.96804 0.24591586
8.8571873 10.972624 0.20495081
9.1223164 10.96884 0.20079647
9.4812803 10.978458 0.20784974
-15.255384 11.195918 0.29648557
8.2669392 11.23081 0.20693508
8.5261679 11.213261 0.23678166
-17.680038 11.512792 0.21353637
8.2483301 11.520522 0.20375623
8.5349712 11.528204 0.23983589
8.2251263 11.87306 0.2170399
8.5273294 11.857544 0.23883736
8.2425814 12.082543 0.21543106
8.5258961 12.081291 0.20816106
-15.271935 12.112288 0.24000692
8.2715216 12.474924 0.2537522
8.5269184 12.477467 0.21979727
8.084321 12.741899 0.24777807
8.2682657 12.734561 0.23111969
8.0845947 13.031805 0.23834291
8.2552061 13.02663 0.24084808
9.482975 13.293955 0.21503991
8.2700644 13.358754 0.23525316
8.0155716 13.424456 0.25440323
-17.644632 13.6698 0.21083093
7.9842844 13.648253 0.23855811
8.2436914 13.600115 0.21546945
9.0559921 13.679097 0.21350531
8.2416201 13.974258 0.21707
8.2441769 14.532713 0.21237704
-18.014378 15.771266 0.27620208
-17.273447 15.846292 0.25161394
10.207616 16.2024 0.21332198
-15.320459 16.663057 0.20153651
7.940711 18.076075 0.27435693
9.4449301 18.163483 0.20910966
-17.302717 18.487732 0.22929974
-17.761843 18.963261 0.25356025
-14.699862 18.982229 0.23191197
7.4939127 19.111769 0.21662956
7.4111228 19.461735 0.21397614
-17.719826 19.972181 0.27690136
-15.074121 20.424955 0.20540518
-14.67493 20.443436 0.2175681
9.3876286 20.505266 0.20996256
8.1789389 20.76206 0.21374021
9.3008814 20.957605 0.2754178
9.3275604 21.106405 0.28434068
7.9821529 22.276073 0.20593978
8.2406187 22.337061 0.20281197
-17.722078 22.454323 0.24543676
7.9915619 22.699226 0.20682791
-17.300865 24.552006 0.22564381
-14.99856 24.524927 0.22979423
-14.993855 24.778519 0.20695612
-17.749973 24.829849 0.25467527
6.7938967 25.266947 0.22748555
7.6709871 25.342854 0.2551066
-15.041684 25.587345 0.21020254
7.6524973 25.639198 0.24051447
-14.507431 25.987103 0.21393025
nan nan nan
nan nan nan
7.7167549 27.485046 0.20272118
7.7022104 27.816139 0.24070333
7.7058315 28.030483 0.23281687
-15.038487 28.383463 0.24516304
7.7095375 28.354872 0.21888329
8.5268517 28.305428 0.24234092
7.6954594 28.652327 0.20636627
8.6413479 28.937336 0.28000915
-14.529969 29.063152 0.29293114
-15.471618 29.107895 0.23277423
-14.556242 29.192011 0.28540379
8.5475464 29.756376 0.28584656
-17.470551 29.934023 0.24738735
-17.423923 30.174328 0.2041449
7.3952198 30.113501 0.21113762
8.4563332 30.11072 0.20736764
8.4540215 30.361679 0.27636454
-17.427841 30.425051 0.26790172
7.3093777 30.471802 0.22657351
7.3800092 30.766459 0.20962326
7.043457 31.029144 0.22421078
7.3607121 31.022835 0.20241773
-12.325209 31.130304 0.27793199
7.0411644 31.354324 0.25352332
-15.912927 31.556732 0.23111837
7.0319571 31.598133 0.25938052
8.2299938 31.676504 0.24272157
8.7205658 31.672462 0.240823
7.0247645 31.857433 0.25837034
7.3677497 31.964491 0.21033084
8.7214584 31.974194 0.24638855
-14.747731 32.092125 0.22492689
8.1685886 32.031136 0.23635176
7.3724618 32.21693 0.23534298
7.6283174 32.209774 0.2227736
8.6067991 32.284531 0.24380413
8.1655064 32.3904 0.28917235
7.3031616 32.539749 0.2398486
7.9896984 32.558872 0.23331484
8.6175499 32.565022 0.21014056
-15.800202 32.634567 0.24450013
7.6853185 32.669224 0.28332546
8.1126213 32.639828 0.27822348
-14.855228 32.742462 0.27052513
7.6564827 32.792828 0.24861875
-16.170837 32.834248 0.29505548
7.9926271 32.820343 0.28069448
8.1611385 32.822994 0.27265427
-16.20495 33.036919 0.26075774
8.1723938 33.082569 0.2698358
-16.176979 33.106018 0.29117292
-17.074045 33.280788 0.2738075
-14.657655 33.305222 0.24183632
-16.127937 33.441032 0.2899586
-16.140112 33.700485 0.28000665
8.1535282 33.858025 0.21375144
7.8883572 33.965557 0.24741903
-16.108873 34.07494 0.27654418
-12.247887 34.091061 0.28249639
8.5375662 34.027752 0.25054684
-16.095263 34.269203 0.29014188
-16.073902 34.692501 0.27032566
-16.07852 34.982712 0.28402621
8.463913 34.951172 0.22653031
8.3965836 35.16082 0.23968095
-16.084309 35.240067 0.2849921
-12.271713 35.288071 0.23411487
-16.060524 35.531601 0.26626882
-16.02467 35.910675 0.26086265
-16.037764 36.171719 0.23774737
-16.031502 36.487267 0.26441693
-16.781893 36.536694 0.27625349
-16.02401 36.767151 0.25804329
-14.708017 36.714191 0.21692319
-14.737335 36.99881 0.22640172
-17.037161 37.086422 0.2323205
-16.004787 37.038235 0.26306927
-17.090147 37.361477 0.20552768
-15.997057 37.353516 0.23177843
8.233861 37.305134 0.27118698
8.2395697 37.583603 0.27621984
-17.092251 37.688679 0.20144339
-16.054689 37.637577 0.2412401
8.0913305 37.771656 0.28769714
-16.067001 37.992249 0.20871687
-16.073259 38.264156 0.20853813
8.1162167 38.298069 0.26879016
8.0930853 38.32077 0.29335201
8.0754433 38.559715 0.26626152
-17.013641 38.825363 0.23653069
8.1093616 38.835655 0.25919282
-16.049936 39.134518 0.21072605
8.0151854 39.125885 0.25740027
8.0187664 39.350471 0.27457076
6.4656754 39.735199 0.20753925
7.9829192 39.728333 0.21773206
6.4056973 40.043362 0.23579323
7.7394543 40.192574 0.24047695
7.617847 40.336514 0.25527292
7.3692679 40.421043 0.25305113
6.1496716 40.658119 0.2136593
7.3847136 40.648148 0.27655345
7.5922117 40.621861 0.24598935
6.2854691 40.999977 0.27974552
7.3432617 40.977989 0.27287447
7.6331444 40.995228 0.24975692
7.3239689 41.191933 0.27001968
6.277318 41.244488 0.26877937
7.6128783 41.319645 0.24215265
7.6746283 41.467651 0.21549125
6.2633796 41.529099 0.24675983
7.1694136 41.504906 0.25741363
7.3238554 41.527756 0.27494991
6.2249207 41.845951 0.23740195
7.1637025 41.867386 0.26584956
7.3080115 41.868683 0.24785465
-14.255085 41.935997 0.20377433
-17.103313 42.104309 0.22052529
6.2066126 42.148693 0.23174508
7.1484509 42.170677 0.25688711
7.2345805 42.13895 0.26316497
-15.153046 42.40731 0.20009147
-14.394641 42.467514 0.28187117
7.1419115 42.485298 0.27093738
7.2552557 42.481789 0.25171858
6.1673341 42.668694 0.21341375
7.2683058 42.676933 0.25142679
7.1126585 42.716202 0.25913975
-14.249639 43.054893 0.20701194
7.3172579 43.005196 0.23149359
-14.386599 43.20731 0.26397702
7.0375113 43.350563 0.20313762
7.655705 43.329124 0.21015172
7.2222033 43.566719 0.23439412
7.6245608 43.509506 0.20594144
-16.794556 43.607796 0.20252392
7.0262761 43.980942 0.25166601
7.5238838 44.03376 0.20558539
7.0232944 44.257507 0.24051939
-14.978351 44.428574 0.24641308
-14.41341 44.53516 0.27867991
7.0297804 44.530521 0.2314923
7.5382071 44.528183 0.20628768
6.1090155 44.679543 0.23401254
6.2150445 44.803051 0.22028404
6.4727745 44.875763 0.20029092
7.5085502 44.800659 0.21134666
-16.772436 45.051804 0.21219783
-14.26623 45.075504 0.20179005
6.2635503 45.032616 0.20013447
6.3192306 45.136017 0.26769757
6.8374524 45.179863 0.2012974
-16.021175 45.369373 0.25268331
-14.358692 45.482368 0.21395503
6.8284135 45.479477 0.23483586
6.9776182 45.492729 0.21095613
6.8341885 45.728638 0.20606728
7.434823 45.811752 0.20313847
6.8357058 46.015488 0.20312902
7.3808832 46.055962 0.21454462
7.395864 46.269306 0.2249046
6.020505 46.352791 0.23148829
6.7320466 46.402195 0.21457009
6.7167783 46.629036 0.21559483
6.183516 46.830936 0.21469435
6.7050219 46.986958 0.20116264
7.2903633 46.972122 0.2164346
6.5797534 47.005226 0.21197888
6.5688386 47.243084 0.20931403
7.29988 47.270576 0.25219184
6.0498853 47.319122 0.25749069
-20.754038 47.860905 0.2218639
5.2448401 47.831234 0.21740244
6.5164251 47.918842 0.21072981
6.4455299 48.423805 0.25562385
6.0292482 48.99292 0.20333207
5.8710175 49.506481 0.25963145
-16.800543 51.918056 0.20042123
4.9749188 52.017815 0.21995506
5.9088349 52.253517 0.23715644
-16.835487 52.638996 0.20272985
-16.115959 53.581818 0.21849136
-17.419653 53.737572 0.25883126
6.0319705 53.930687 0.25733662
5.8880625 54.025116 0.27855763
-16.903915 54.331047 0.26294249
-14.096928 54.478371 0.23546192
-14.093516 54.691307 0.22079131
-16.048138 54.726112 0.23051043
4.7171984 54.783066 0.26766095
4.9755244 54.768997 0.24105035
-16.060963 55.038017 0.26620495
5.0258918 55.091457 0.23784465
-16.105824 55.356758 0.27831191
-15.242824 55.325264 0.23020834
-16.120213 55.571545 0.25185868
5.0467391 56.375027 0.21158205
-15.136173 56.508892 0.28477603
-16.470846 56.603363 0.22036551
4.9642968 56.778133 0.20000841
-16.367296 56.944847 0.22116065
-16.179113 57.106991 0.27063885
-16.144939 57.506721 0.28733271
-14.116914 58.356194 0.21790546
-16.13372 58.661854 0.2313578
-16.173613 58.969719 0.22592521
4.9965711 58.993263 0.21135437
